
-39.2737027805395	-7.73062592717371	516
-39.4159579556119	-7.36456569986851	947
-39.4450184555413	-7.11968275181613	423
-39.6622840700226	-7.40053198462764	955
-39.7289477334643	-7.59134281877866	468
-39.5229750171684	-7.78961046222624	446
-39.5148714741652	-7.54257001514899	698
-39.0387954017821	-7.15124916971293	334
-39.3965222029755	-7.01268637565073	560
-39.9563134888065	-7.52224244091044	875
-39.2612589244494	-7.18872295866934	364
-39.9457002209035	-7.8531853149822	443
-39.9363607343732	-7.48701645777088	881
-39.9831644432316	-7.0259702821767	522
-39.4318599615855	-7.5529288347346	926
-39.5487577819725	-7.42943831989098	912
-39.2116734919184	-7.60452817358408	603
-39.7232759684656	-7.03965110258153	643
-39.2211356729256	-7.29366684425485	402
-39.9285926327443	-7.42213722002081	886
-39.8596027047004	-7.86155359757102	445
-39.6987176540448	-7.71200164529995	494
-39.7457469905415	-7.9852287983616	410
-39.0358612599056	-7.67844139206134	496
-39.9500016755378	-7.38816733800598	865
-39.5035633786163	-7.96274941958924	427
-39.5333277315599	-7.06641185224406	518
-39.3994523069574	-7.95445888004151	422
-39.8551290128703	-7.99605911763608	443
-39.2969111227045	-7.94778907463651	444
-39.0616943618123	-7.73277121519067	493
-39.4024973936106	-7.92185008180271	455
-39.05521728921	-7.99764302882553	441
-39.5332468226161	-7.16323979762243	736
-39.3911441720183	-7.87947053452148	482
-39.6709625279984	-7.77722971471538	498
-39.9430620852843	-7.91341877652903	414
-39.7646310482946	-7.41050280714068	916
-39.0495441552386	-7.92351683582987	483
-39.5912793633542	-7.91258106238152	429
-39.5838220018978	-7.34032984225394	908
-39.8437552538092	-7.42042420202083	710
-39.6390587650433	-7.40503287721278	938
-39.9665298439386	-7.45933011060487	870
-39.7339556552211	-7.01105699105712	615
-39.7624976497175	-7.03425079517487	690
-39.9352388984063	-7.13025814454572	619
-39.8949089199401	-7.72066703953955	492
-39.5723873353715	-7.65556598152065	464
-39.4457847702694	-7.02508664514942	573
-39.6834603979003	-7.03495185473616	619
-39.0346364225792	-7.2855744466042	389
-39.2769044026608	-7.60062249929503	763
-39.4049815917186	-7.83736568412488	448
-39.1753356505713	-7.75433932796141	496
-39.7901330725779	-7.36272410646328	908
-39.6514016174559	-7.49184561513732	652
-39.6467693033144	-7.76538640909396	489
-39.8990746071473	-7.89482206959722	441
-39.420681812814	-7.07666196857485	449
-39.374449287694	-7.73334745867634	484
-39.0107282307435	-7.26941267130952	385
-39.0786553778821	-7.3966210218636	625
-39.9175299574976	-7.75783087563808	454
-39.8172074707684	-7.59688822111386	524
-39.3908881542419	-7.97986057420525	445
-39.0583388730314	-7.40200361540064	499
-39.3408500801204	-7.10826709786425	437
-39.2510269072214	-7.71331711273864	553
-39.6177482577782	-7.31730040186963	895
-39.4423733609572	-7.43377280626754	876
-39.4653715102115	-7.35989887386636	928
-39.8169386586147	-7.72708287598021	531
-39.9064605635192	-7.55379263530775	881
-39.8238792490097	-7.95897838774729	439
-39.3280660367211	-7.60911297957418	927
-39.8385188642237	-7.23054755530032	880
-39.03676844025	-7.49173168275145	453
-39.1474165148513	-7.72729772840831	500
-39.1590949399614	-7.80926532122312	497
-39.2047055778015	-7.22912406372871	364
-39.2743628114635	-7.53384633918528	908
-39.682259315994	-7.5789182862643	478
-39.2498458657165	-7.63264737662137	664
-39.1110630682025	-7.38929160319574	468
-39.5643623827998	-7.28847024440916	917
-39.8952202547756	-7.73289228109353	498
-39.4589667271782	-7.03140920682647	499
-39.2136253688455	-7.08566835814155	382
-39.9369028182463	-7.98679633381437	450
-39.3065018337007	-7.36714054699922	911
-39.0998806406643	-7.52611131601721	493
-39.8904882953285	-7.96688815759587	467
-39.6430456369808	-7.213908185143	913
-39.6033246464332	-7.02125344935443	353
-39.5156799613734	-7.68877848177711	512
-39.803509334698	-7.47333869410042	559
-39.987627382391	-7.9842335929897	447
-39.9642355206339	-7.4696869986798	870
-39.9551866425949	-7.30943993227526	880
-39.7607640083147	-7.91432800105209	449
-39.9483621909501	-7.99430787563387	460
-39.1664694719636	-7.41508693535252	944
-38.9999907874707	-7.24105190915774	332
-39.479417824147	-7.1853490695828	878
-39.0178743051406	-7.35121496770756	363
-39.8451003894385	-7.58326310990747	634
-39.3983607268096	-7.11924559342678	430
-39.792497597668	-7.84863972816187	440
-39.390836269445	-7.17989130616095	439
-39.7238385070181	-7.55338384233937	502
-39.0453616703635	-7.04449440371523	379
-39.6040620165734	-7.02224815440453	355
-39.4654451308957	-7.04455385025782	464
-39.1333235709243	-7.97725151331433	500
-39.9928853950635	-7.95471575774214	433
-39.4348016756961	-7.51055512138356	908
-39.2920215990941	-7.37377294491782	870
-39.6566047472301	-7.71430136765632	467
-39.8715518635417	-7.64701010849883	903
-39.7081442293379	-7.76897792834707	478
-39.5674464298359	-7.21123265809948	955
-39.8452996448366	-7.04946594354294	592
-39.0909247964262	-7.0224341022033	419
-39.0033452339914	-7.54096083452229	392
-39.0266688603268	-7.72528042696224	491
-39.6930653933647	-7.47518548622015	786
-39.2892222902482	-7.78680972360689	516
-39.7661327070858	-7.42990022889036	704
-39.6610093862176	-7.87345459235755	480
-39.4011430376945	-7.8661386350263	481
-39.0336525783067	-7.47789835560439	437
-39.1628012904213	-7.52030918503263	679
-39.5870929578422	-7.86599496308458	422
-39.4221937437603	-7.83766971860925	489
-39.8675189870626	-7.24951407283106	898
-39.9031485802319	-7.53393034541266	890
-39.8534274096595	-7.23681835958766	899
-39.8518874502933	-7.35611693363558	902
-39.7157425629867	-7.75846289039911	506
-39.0630985289583	-7.46441881942528	699
-39.0589953374274	-7.54309382514681	469
-39.7957096086071	-7.74309983189234	510
-39.8235504139405	-7.73474147842288	660
-39.7811200868638	-7.64371618278417	522
-39.9770129615815	-7.31060224461632	880
-39.4897053508742	-7.15204344773784	494
-39.8425473643694	-7.38254952511605	887
-39.814318407036	-7.25735327591103	874
-39.452669263458	-7.36944963055698	927
-39.3843577005667	-7.27544386806126	467
-39.1295398354718	-7.14929966089259	328
-39.7481877794546	-7.13238989486552	529
-39.5850676930792	-7.42833709548971	922
-39.7417748718959	-7.91169661358628	424
-39.5904553769091	-7.29013415797087	916
-39.5228320522063	-7.42958172134192	900
-39.8618706378953	-7.95476207821052	484
-39.5633722049247	-7.58595398407644	519
-39.5350667160058	-7.39059893228366	878
-39.3396415101155	-7.82786647120363	544
-39.8751106169042	-7.33813819352083	894
-39.027385476445	-7.96743931866608	472
-39.6313258323571	-7.79356362442853	451
-39.925654435793	-7.22958806313291	889
-39.7931491111282	-7.12350413180803	544
-39.4961759354368	-7.22723929285299	941
-39.980345910238	-7.18140707029587	656
-39.9726877151916	-7.6461105301928	533
-39.8183136450439	-7.81431952033065	480
-39.6539198002404	-7.32869413678743	891
-39.5942024858666	-7.9690089560187	424
-39.6214268919614	-7.51922333422086	580
-39.7747140491429	-7.19119787893737	643
-39.4727181504074	-7.02617789654892	540
-39.9130451309586	-7.84125386682808	441
-39.1225810131234	-7.79469922597221	530
-39.8493606668971	-7.62244795502094	560
-39.4761944978306	-7.60978719285387	554
-39.3757232673902	-7.12658172928955	400
-39.762210714611	-7.1161351122831	459
-39.2008439835287	-7.45865315926126	951
-39.1661961410062	-7.25159652996587	380
-39.1168367409239	-7.46643637421659	932
-39.3268510818933	-7.9992408702908	441
-39.1599126450251	-7.25274529700326	373
-39.5349152742297	-7.34223084890445	921
-39.394176967134	-7.37923345116019	817
-39.1618906010605	-7.13120988186541	378
-39.13490346585	-7.73692787098898	498
-39.8581750052752	-7.9582196471682	455
-39.0401356921283	-7.07092552822778	344
-39.6294731928553	-7.6143423142094	478
-39.7748686241698	-7.14529472436173	482
-39.9977142020006	-7.01852485125032	494
-39.4340794387894	-7.05163594133543	646
-39.9555071676897	-7.56349371106447	879
-39.5634902056769	-7.60470499727699	535
-39.6497792558378	-7.1258514548038	564
-39.6116915139629	-7.12822572099779	691
-39.9031071436504	-7.02405662707183	510
-39.8350303907464	-7.37787822875757	890
-39.9608619451883	-7.85137104143192	434
-39.6587347168874	-7.37234558365041	923
-39.463558392858	-7.55331373677323	942
-39.9921224667622	-7.76476107766715	462
-39.4678449972727	-7.82630147679603	488
-39.5546538698519	-7.35012894013616	906
-39.5062513791016	-7.21309843162823	944
-39.2104203556003	-7.19511576022341	452
-39.3452805574889	-7.59758444832598	917
-39.8559691060832	-7.48919366064944	860
-39.7969211461521	-7.90941800395933	446
-39.5384149192704	-7.85300611586058	430
-39.664111386193	-7.57130650524061	487
-39.9698188896609	-7.02175167969375	441
-39.6500390171189	-7.84996927056003	477
-39.2274120956418	-7.6458183130034	637
-39.7442921169324	-7.46221777436077	576
-39.5701580112075	-7.81954275433889	428
-39.6085186133956	-7.49877263352388	633
-39.1226643851966	-7.70931785658302	493
-39.1259401355691	-7.49057948413401	749
-39.9797068476802	-7.78895300643118	464
-39.1172779671395	-7.40471125470823	601
-39.1512863659918	-7.32975169252163	407
-39.2581767221089	-7.10307320486097	442
-39.6840247811512	-7.37641918843745	924
-39.4613066277564	-7.90154982357973	452
-39.842350748764	-7.16006098821215	756
-39.5740310975804	-7.51446025935587	671
-39.6241730618657	-7.80076952569612	478
-39.7472658863897	-7.01629078629599	694
-39.0125625327275	-7.15311417779275	334
-39.3855918082321	-7.21114423945516	397
-39.6827841619366	-7.38425271228561	924
-39.5041713953143	-7.86221535979784	444
-39.2547839961002	-7.03001950406971	605
-39.0532855361059	-7.3125906337217	426
-39.2635492466267	-7.09963743429794	444
-39.4898221953561	-7.27463101711418	966
-39.9888829785931	-7.70503981624123	476
-39.4463208406233	-7.11366839405803	414
-39.2223966855568	-7.51288143052073	938
-39.4672279502498	-7.48712377471215	930
-39.0199585106307	-7.35723701479978	374
-39.0812349704712	-7.60141649451704	496
-39.7359532241557	-7.76185392728079	508
-39.2665656585035	-7.39895703002107	916
-39.4848652100416	-7.58898843449899	828
-39.8867247962077	-7.56328661698688	882
-39.0167751323903	-7.53772707385864	420
-39.1404958039786	-7.68176730934856	477
-39.9269904597305	-7.82311269561744	438
-39.5375492344451	-7.45567839864825	919
-39.8474490121557	-7.73280434326048	483
-39.1649969690881	-7.92496191772996	510
-39.8879705346496	-7.16643363326786	644
-39.3329941998715	-7.67205482282211	635
-39.3804140658274	-7.63433808098434	679
-39.1143626487677	-7.58350151443806	472
-39.9591008203841	-7.54606242096659	878
-39.0947322640864	-7.21677290329608	342
-39.3698735947493	-7.33173036571258	496
-39.3280957576663	-7.41989641154375	937
-39.2562126706396	-7.57842191765574	870
-39.2633674595301	-7.09664179494753	445
-39.0197790125289	-7.05398527117168	341
-39.8036500619689	-7.80349562115789	460
-39.0576511779838	-7.11067054695233	367
-39.2418872895321	-7.00490487586632	420
-39.1293305878169	-7.60595454507243	600
-39.3218654586798	-7.32455870018704	444
-39.5002724154529	-7.75932867090184	479
-39.1080807604733	-7.33808137486338	782
-39.3645142138891	-7.16665174493205	427
-39.6997426654339	-7.25400529090278	884
-39.5873236938267	-7.32379405904163	894
-39.9594336145603	-7.30650491073714	879
-39.3423338469448	-7.32789961726242	496
-39.4199447383482	-7.52583898756786	898
-39.8903359913243	-7.65627247519836	907
-39.9966525066324	-7.37427681168271	870
-39.9495701307906	-7.07450760667113	564
-39.272129262714	-7.51990473139222	911
-39.2744468490858	-7.52825856507223	903
-39.4631046703531	-7.58892381312142	744
-39.9095517889578	-7.52377776626062	878
-39.6341766821637	-7.08072317254825	444
-39.6574036104798	-7.56100364198857	522
-39.9293560141905	-7.90433409894269	418
-39.8219057930797	-7.20139756476216	823
-39.2820058882651	-7.04828029130829	701
-39.6180237564847	-7.82419889832892	450
-39.4673403100008	-7.13790850236232	509
-39.3937797619157	-7.5953137593516	904
-39.7750334213496	-7.13041938719625	471
-39.9090167815639	-7.21786358531668	881
-39.1963475323327	-7.11586544715526	363
-39.8500488708689	-7.30811563534094	898
-39.8228216157376	-7.11508581883507	505
-39.6867973982899	-7.72864126532797	489
-39.510103546491	-7.03527151752894	502
-39.5826098582314	-7.0036022833351	380
-39.3950222555626	-7.20258484098193	438
-39.9491736558942	-7.07423708804608	567
-39.7457020112482	-7.28166987884653	861
-39.7937164222484	-7.28887676009152	908
-39.5993830212019	-7.49205014170311	779
-39.586180485121	-7.36109099009237	866
-39.5028180419728	-7.30076417634746	943
-39.7195329988251	-7.51896253117621	526
-39.5489536658544	-7.0939344519098	453
-39.1150990588295	-7.87095599176075	521
-39.4631336904719	-7.17218541638053	691
-39.8189040515078	-7.74882851791202	534
-39.3188698053215	-7.41757174014749	943
-39.0220634391259	-7.15189130338607	323
-39.4688918457946	-7.28679780698397	966
-39.0099231523457	-7.53888376506981	399
-39.0860282149897	-7.89651630280305	485
-39.957193187651	-7.75323879223322	442
-39.721736417968	-7.0744004155289	569
-39.8959272272499	-7.04064357718682	529
-39.6704762166525	-7.54128233125484	528
-39.6539050548941	-7.98776478948953	466
-39.3177485990107	-7.84621196650225	491
-39.2629396236029	-7.53279188448345	887
-39.8949932251971	-7.25539348636188	898
-39.1978533922338	-7.55531142354128	942
-39.8170899369682	-7.51040882861424	582
-39.3855321339474	-7.47769860825711	875
-39.5558498455809	-7.48041206214866	940
-39.9981532667481	-7.92197548933155	436
-39.2491477596536	-7.66183132197259	664
-39.5144599003454	-7.58550750016721	744
-39.1557063401733	-7.77973508035398	466
-39.8083914024676	-7.73353046596602	539
-39.8369667014631	-7.3537345424032	900
-39.2142182442041	-7.69549612148896	539
-39.144126982641	-7.2532618431545	354
-39.1268228038834	-7.8948511158474	537
-39.7983676776206	-7.77422216312693	476
-39.5625156716162	-7.15593659140109	811
-39.6289455746644	-7.76666633408855	479
-39.5438484687552	-7.94970065711509	415
-39.3876203060669	-7.23341942593048	417
-39.308695487699	-7.81025963663765	542
-39.5214500625305	-7.23499351934296	963
-39.1613929453648	-7.10941859468646	356
-39.6709115096238	-7.47341450314097	946
-39.6020917430863	-7.69749645992632	462
-39.0746291955368	-7.11504884642021	368
-39.1664250762803	-7.24714718744205	382
-39.0284705416322	-7.4514078551237	436
-39.0080250960699	-7.84001439778011	547
-39.2781789587902	-7.90473881739208	449
-39.3101796161593	-7.83739797097048	533
-39.8561798789206	-7.14293648279312	614
-39.3672221212663	-7.74488872689	507
-39.721007453419	-7.28166865945832	883
-39.9985706895286	-7.97624765462382	434
-39.274575009363	-7.499493467557	913
-39.5272269134265	-7.31621476112248	920
-39.0792097593956	-7.84213047954458	541
-39.4881918621509	-7.55200323482892	752
-39.2665346956156	-7.6137773286607	678
-39.2509133462539	-7.4655411177121	946
-39.7727899549164	-7.54904129322833	521
-39.114163220478	-7.8746550144854	514
-39.6499289514938	-7.93033522946725	476
-39.3554308001866	-7.41691312779577	917
-39.3174967154629	-7.74528183761808	587
-39.2912976997845	-7.81653163799094	505
-39.5178189613872	-7.77315862633141	488
-39.3616670700577	-7.72606197862746	538
-39.9705225645816	-7.98051913435614	456
-39.2234058842432	-7.45828281705658	936
-39.1691873786612	-7.84251055700468	488
-39.923604543848	-7.48697554154027	877
-39.5156090616376	-7.23592802815401	960
-39.6304600873697	-7.61131900462011	476
-39.0434942731923	-7.16707310199656	390
-39.0290305955349	-7.09931485369767	349
-39.180369298374	-7.45613420747081	953
-39.7527028476309	-7.72526698466637	508
-39.2258438039429	-7.13385787886887	413
-39.0506974672974	-7.85802412815103	504
-39.7538807036268	-7.83494142695465	476
-39.6128018210217	-7.52622775848881	563
-39.0995969571603	-7.74247289153621	487
-39.3347636624917	-7.24105574751711	444
-39.4150400302074	-7.44859397176506	893
-39.4992458264377	-7.89920450224307	408
-39.1113171980934	-7.67786391039157	476
-39.3057313587176	-7.05176021078046	637
-39.4888362839521	-7.90269728548277	428
-39.4492311512619	-7.73426419470858	489
-39.8947910018695	-7.01471640306151	559
-39.5703258687564	-7.01968415608151	361
-39.6964081020403	-7.76973963741859	470
-39.1024925302602	-7.38367399339713	511
-39.0382320071665	-7.89185086594459	519
-39.5369390523737	-7.29924706044857	930
-39.5675245194603	-7.10009891042632	469
-39.346586828337	-7.13678887516348	382
-39.5389874055447	-7.04090024861357	531
-39.5093499009332	-7.69852632565096	473
-39.0063356716173	-7.72324944095722	448
-39.7588971764353	-7.84336230737615	448
-39.0765989530883	-7.62276996683082	618
-39.6052258830822	-7.30082376273535	900
-39.1124762497704	-7.65079298312248	522
-39.7082981200093	-7.79141816570245	498
-39.5670060378585	-7.41775882070511	912
-39.5416636246092	-7.6419252239703	490
-39.4048511894728	-7.46975281193595	859
-39.7458030911409	-7.99731749898208	428
-39.8912139958065	-7.74633822942051	474
-39.0744862902024	-7.47073528566991	651
-39.9357666096321	-7.16438952729947	635
-39.435003245674	-7.16164921248385	548
-39.7203673247662	-7.21399222802855	797
-39.0430863721516	-7.18027092065274	364
-39.744663963231	-7.42105709132333	760
-39.7178959358308	-7.86260453640617	422
-39.4739244771269	-7.56819562391544	972
-39.8981677040166	-7.21082424448172	875
-39.790781140587	-7.79030857119214	488
-39.394276975737	-7.57411320147273	904
-39.2982831077059	-7.41314701674779	947
-39.6333250948339	-7.28706924839046	903
-39.6370221306098	-7.76016595021473	488
-39.8057322189056	-7.08382416229792	633
-39.7603663635187	-7.28893767498694	881
-39.8040238927908	-7.8967179050464	429
-39.5830452959334	-7.95549495318238	401
-39.946571558745	-7.00348940806166	447
-39.9767869349958	-7.42518424732227	863
-39.4182464581506	-7.4759446718137	860
-39.7383148864983	-7.35235144419874	918
-39.2623475255024	-7.97360767661955	445
-39.7107283713944	-7.38693785355331	914
-39.8747366469587	-7.80642930369803	463
-39.3885069488736	-7.36976722790145	689
-39.6502780402688	-7.61968446705633	495
-39.1534321846223	-7.69344500934471	487
-39.8325697000876	-7.20023140691663	845
-39.4964064141234	-7.27675770351768	962
-39.9720237464992	-7.76222006166081	442
-39.041515043446	-7.24672566415665	399
-39.2470245632593	-7.69534634593973	627
-39.8003675291536	-7.63524469413893	525
-39.2259015033935	-7.26055119992828	366
-39.5073245534131	-7.25898134715974	951
-39.5840193275925	-7.87888189675627	424
-39.1743476054345	-7.18965652694312	404
-39.3064945892598	-7.87401471686433	460
-39.4559561873585	-7.75760976605071	474
-39.4515229228561	-7.68805832290854	497
-39.6114309821401	-7.19182106404291	920
-39.777547853871	-7.07795229949231	579
-39.3506480155457	-7.02013504811798	635
-39.706234108283	-7.09874468495161	444
-39.7338383181726	-7.84139714394391	476
-39.3870765086068	-7.63639674862765	642
-39.9918217752686	-7.07699430957378	573
-39.9876631268686	-7.02941665010009	523
-39.54631297053	-7.21252606784666	946
-39.0789922445939	-7.56912085847604	434
-39.6723780425785	-7.8801476743823	490
-39.5682393466298	-7.94038989261101	430
-39.3886893773536	-7.75322338058743	556
-39.9470083957947	-7.32064413599122	883
-39.0433053364789	-7.93745293738908	465
-39.6968737460544	-7.54362234865471	500
-39.9945076101924	-7.95851054470062	453
-39.7235245926879	-7.83980332746274	467
-39.8619597723691	-7.25144737919752	901
-39.3505788383883	-7.91777109705692	463
-39.5350216294583	-7.91573869277602	441
-39.5402178503663	-7.5728866659797	600
-39.3543219806498	-7.10590970136998	435
-39.4379420346164	-7.49110634248526	909
-39.6775297271511	-7.79419379105836	473
-39.7414292679012	-7.53866971935171	507
-39.0920980502441	-7.57868280597199	444
-39.3047638788208	-7.92431372709669	477
-39.4807077492252	-7.63741755714508	556
-39.6200036046403	-7.6343187145054	472
-39.0444214253388	-7.37916844888936	448
-39.9392246338124	-7.53892797710672	878
-39.959954160737	-7.94198313531442	437
-39.1983634030197	-7.64961345064083	581
-39.057027104033	-7.5743958204186	427
-39.4992150955578	-7.21845134924371	933
-39.0050590197487	-7.81547714778897	518
-39.1609861141379	-7.12477781091135	340
-39.5750413294925	-7.09861688274627	437
-39.0022180459708	-7.17149470237543	427
-39.6309335948973	-7.00013647946545	403
-39.8049179395996	-7.80622562097019	482
-39.3354787687096	-7.02467480234454	656
-39.3912341309493	-7.98538077990937	437
-39.6876279439296	-7.71061567102593	486
-39.8555326643002	-7.99298251904928	435
-39.6954030203311	-7.10431128712096	457
-39.5691975657965	-7.75912152199743	464
-39.1642688443594	-7.98084313211956	487
-39.2858785438377	-7.3681026403808	706
-39.0610123283497	-7.44580552980208	772
-39.7294270824577	-7.60277631958455	486
-39.7173970831429	-7.66824332223024	476
-39.7855316656103	-7.07330941133143	655
-39.8959735012829	-7.90367847567047	444
-39.1145824768206	-7.34424539266254	735
-39.6738188683987	-7.23942481427	886
-39.3546812909168	-7.85917300319433	490
-39.8447913102062	-7.72496668191575	521
-39.2411153332525	-7.09905217875965	416
-39.1821582593223	-7.16402237900334	367
-39.5281860757063	-7.08455470941353	470
-39.6132276830431	-7.95790413595981	441
-39.5333375350104	-7.51805546876164	861
-39.3267179329058	-7.53121853611814	819
-39.1150703487009	-7.74209878787738	501
-39.9348522615503	-7.06558952270872	595
-39.564119871878	-7.19934052094324	930
-39.6165172342046	-7.73081145842891	441
-39.6888717599556	-7.01423425288327	544
-39.7893606562202	-7.51291995100908	517
-39.6552625924141	-7.18637023566962	869
-39.9458075451965	-7.58815256579582	874
-39.2084420422203	-7.8999697766099	494
-39.5891232722243	-7.8056011076485	460
-39.7859503545265	-7.98398605571376	425
-39.7457065875004	-7.69033781678812	489
-39.9599440052004	-7.1359936907764	640
-39.0357784936675	-7.26929059258727	388
-39.663450714811	-7.76944550722099	489
-39.5667817088484	-7.87509492009289	409
-39.2219448458815	-7.06091630530911	417
-39.7905175107396	-7.81699287363855	468
-39.7976984799987	-7.05616776949644	679
-39.9876245410599	-7.09783810312955	583
-39.4603286258589	-7.85569934609573	432
-39.8562802529925	-7.49596762650631	869
-39.4957586044184	-7.00949258324505	435
-39.9106310811246	-7.74851787162533	467
-39.0931967988061	-7.67898581401835	506
-39.4983712734935	-7.51007666201462	961
-39.0609459960161	-7.8762598167159	503
-39.609416486605	-7.5858807223349	519
-39.4053569285868	-7.8472766332622	440
-39.0051917394368	-7.02145360173208	345
-39.3963849031192	-7.46088007279613	895
-39.547068836643	-7.10419629434423	475
-39.9524180842543	-7.04685109033412	603
-39.3513945348414	-7.75718691077788	520
-39.0533029743696	-7.57699772865731	423
-39.0698745027754	-7.89500591031476	506
-39.2053443040993	-7.95197216097257	455
-39.3190799830516	-7.96674025407642	453
-39.0282121650299	-7.02389135918958	334
-39.0019133192943	-7.33080449328949	340
-39.7258757829212	-7.25870753951073	825
-39.2683178298044	-7.44096579923612	967
-39.9491238597612	-7.46605742436744	873
-39.8009397129575	-7.87192470173326	419
-39.1764873397834	-7.28185447827946	368
-39.4007919228857	-7.96370149981129	437
-39.8899681040461	-7.88428691414468	436
-39.9024749397474	-7.60506496200293	889
-39.1578909248019	-7.1097480069418	364
-39.3275124718103	-7.6085875205035	921
-39.5447609518134	-7.49911844663994	844
-39.096971658234	-7.27431418654676	497
-39.4909226708584	-7.65098875679574	562
-39.3653740113785	-7.65996587220712	654
-39.0098176941218	-7.09383072858152	312
-39.4910189892822	-7.19944184879962	907
-39.8512957170149	-7.09588986868045	586
-39.8518300490778	-7.10914995550678	580
-39.2139289552456	-7.831814033753	525
-39.9475670575341	-7.6015810779823	880
-39.3643446288798	-7.45101336436863	914
-39.8921067543311	-7.30495747040715	896
-39.4642838224453	-7.32404244784184	948
-39.5313751848566	-7.92387094591716	431
-39.2550571133073	-7.57129756517151	889
-39.9690706354759	-7.54806568309116	873
-39.1116323074661	-7.09936530405918	410
-39.86975031937	-7.80268899975743	473
-39.7455245393579	-7.16917507774738	530
-39.0606006099421	-7.64602683069475	566
-39.8792701030778	-7.61544759789236	786
-39.7312311634268	-7.39335793614123	929
-39.9439383970388	-7.42440332348539	875
-39.8928448117028	-7.11385419979552	602
-39.7346677143909	-7.22348090963528	597
-39.0959392690379	-7.56265630256568	457
-39.5959185855926	-7.70730883367718	468
-39.4368050838398	-7.27877060888745	682
-39.0077813273447	-7.89959603475262	499
-39.7523458690477	-7.24144847323648	528
-39.0049530756771	-7.15127696095075	363
-39.7153726147941	-7.98527947581631	448
-39.1454004918309	-7.95999026245995	507
-39.5248108380466	-7.59775865012423	633
-39.5598091130049	-7.62221872128441	517
-39.4753616579985	-7.95034945901601	459
-39.794644751883	-7.2015643519126	760
-39.287865284773	-7.33461925843869	446
-39.2844028432771	-7.7296228812839	560
-39.2687593456081	-7.10769024054645	436
-39.4387609131765	-7.83964005349587	435
-39.6160016162156	-7.81900284661113	441
-39.3331739274413	-7.25692573434506	426
-39.8514399718634	-7.23742218779009	898
-39.2974455557258	-7.27572942505133	435
-39.5673564457231	-7.09149206514554	446
-39.5750522409929	-7.43504517389383	945
-39.7184352200968	-7.88303746357712	430
-39.1836936151374	-7.3014087670684	409
-39.9113064653528	-7.67137044279557	775
-39.8738165975071	-7.99104350976379	440
-39.8226411719277	-7.99747593845508	454
-39.7018075616024	-7.76289806795332	494
-39.1089391522218	-7.34420212464989	783
-39.9675089218109	-7.57058619443434	870
-39.8528088434427	-7.44861835798816	859
-39.1903523720168	-7.99840348172488	429
-39.7135179623771	-7.65535576623111	447
-39.1398240219801	-7.43352911524843	936
-39.7301265686394	-7.95406264531822	446
-39.6925595413342	-7.69449602321628	476
-39.0582689159401	-7.15286961621076	309
-39.9549012070562	-7.90478915900727	437
-39.3703632666572	-7.76577526546271	493
-39.2038578241493	-7.22771579913596	370
-39.0114046218452	-7.41194495358284	438
-39.8887654625023	-7.21223571866879	875
-39.7082090520764	-7.46377411444276	829
-39.5782539484671	-7.59816005538146	501
-39.0977987829947	-7.76587237295651	484
-39.122432026369	-7.51467308838144	552
-39.6628435901667	-7.74124720422556	466
-39.5199492350623	-7.59088828611027	659
-39.5633615876153	-7.00917551367816	342
-39.9743169020555	-7.11511858247561	666
-39.1419415980713	-7.66609358633894	490
-39.8990325670871	-7.10393804836431	609
-39.2318677431276	-7.83315325091741	494
-39.9080465932946	-7.23901587294441	895
-39.2322966397978	-7.18545892442332	363
-39.2354744593502	-7.75465859240176	523
-39.9531800074343	-7.17133378278335	710
-39.5181990400006	-7.77401220265259	486
-39.2336134645104	-7.34257673471823	475
-39.26105730045	-7.56392376858889	890
-39.9712085520146	-7.69875761849684	476
-39.6970241138484	-7.29392743620025	884
-39.1220226558312	-7.79233696221777	527
-39.1117503628043	-7.74116062121799	493
-39.0694818764244	-7.75050456544148	480
-39.1272759045146	-7.14520640494456	327
-39.5146774266061	-7.43521692169308	878
-39.9678862394831	-7.04017622282036	543
-39.4070079508019	-7.68742605290648	545
-39.6610918710115	-7.84533670293338	481
-39.3544438575198	-7.32943613259182	480
-39.9285735090241	-7.47363855557827	879
-39.3417403459797	-7.41027352326622	933
-39.6925961860216	-7.47562576209408	776
-39.7152072199928	-7.88580609828422	449
-39.8001178093618	-7.87475083966098	421
-39.2839533036246	-7.28220690024583	391
-39.96408425207	-7.56988177301881	876
-39.1463305914917	-7.63497195597326	609
-39.9167818670659	-7.81937600091227	448
-39.2851981806331	-7.05623326975334	573
-39.5083054346588	-7.34771602770074	897
-39.2743658202318	-7.29071634489474	389
-39.6926820507684	-7.5535264840291	483
-39.5961185880059	-7.15894479787389	823
-39.2970035896327	-7.88131569291696	428
-39.3974017298446	-7.45258938570535	899
-39.3106590471219	-7.38716866380369	959
-39.177248153334	-7.8308344543841	506
-39.9077948070842	-7.22846652091748	891
-39.634568102483	-7.57903898613628	531
-39.40783438427	-7.54615367318176	908
-39.8429532080284	-7.23453639302971	888
-39.903014190742	-7.02502479584372	503
-39.407413889101	-7.02494082583546	578
-39.6769777581219	-7.02740576570763	588
-39.9445216923287	-7.57692793409834	872
-39.7743743155738	-7.21854767041922	616
-39.8837830241079	-7.00229284709833	617
-39.9350999089159	-7.06181792773541	589
-39.5347412179043	-7.25470560741665	944
-39.9752178578529	-7.79503317882525	482
-39.9687567321524	-7.93569907641182	449
-39.7071045966531	-7.19472758830094	591
-39.7376626332743	-7.82093928075359	482
-39.1421275275535	-7.98257212752509	504
-39.8239177616008	-7.5673957817836	537
-39.1849083770663	-7.38493599578443	605
-39.0894734954533	-7.09301250775148	564
-39.3377644321886	-7.4633182832885	906
-39.4081721067442	-7.09799367752189	414
-39.0409813690839	-7.52917506598257	487
-39.3400452801679	-7.0951666026341	478
-39.0934066840132	-7.86585555461726	538
-39.8367165487992	-7.82312454910728	455
-39.4096105369929	-7.58099945492132	931
-39.1705968632526	-7.93810212811242	495
-39.4782198796513	-7.17884419417896	772
-39.0409684272629	-7.18472968738675	350
-39.1757572885345	-7.45001761159511	957
-39.7867295511427	-7.65551057714493	480
-39.6772072012149	-7.78741028903875	488
-39.6069771443938	-7.50154209970388	633
-39.1006933600518	-7.74653793281403	492
-39.9536494257783	-7.22041054530779	852
-39.8661412984606	-7.26621972541107	897
-39.0624254518007	-7.24868811727749	359
-39.3363281616958	-7.43143904361167	917
-39.3668670488614	-7.26927690434443	426
-39.8651976083086	-7.32607959885972	899
-39.7822649924385	-7.5529077748585	533
-39.4813406831244	-7.39256004967071	891
-39.7628795598817	-7.03095595736034	675
-39.7785861281791	-7.89154248103745	474
-39.16497930366	-7.34805021891359	484
-39.9402919200579	-7.45062393894654	871
-39.9973849478965	-7.11389662367036	607
-39.6738264737538	-7.17625674849532	841
-39.4113463923732	-7.54544031633451	905
-39.3397190853707	-7.22785398284359	424
-39.6383527643662	-7.50072135829227	686
-39.4086655921149	-7.31785145905088	956
-39.4417477660323	-7.71080541261341	506
-39.9028685229465	-7.51512135900106	879
-39.2012760711339	-7.23235640680186	359
-39.5188229242619	-7.40441923505443	890
-39.6759422349305	-7.47249197295317	834
-39.9375915483142	-7.26920912351155	890
-39.4550489051865	-7.96980867343128	469
-39.4998312882053	-7.68525141229329	500
-39.5521145543542	-7.13904073635015	602
-39.4333953384143	-7.83231970867213	457
-39.0417408348117	-7.01600645921369	316
-39.4548345088149	-7.23830320328136	606
-39.2164554230456	-7.81964707220417	577
-39.062473961534	-7.73684790857528	486
-39.3652039135573	-7.57600963701412	903
-39.2117486858601	-7.10658928371745	369
-39.1379671501699	-7.26414213984929	414
-39.6672772133702	-7.13236622941211	608
-39.2669917185268	-7.66622539374598	616
-39.9541049102925	-7.90441410720478	439
-39.1537197458865	-7.789177857853	482
-39.3012642390201	-7.95129996494639	440
-39.2537718617463	-7.5068696460693	911
-39.2856412279264	-7.70854611086746	594
-39.9814281429951	-7.6391807866271	518
-39.6040273168059	-7.4547566040782	958
-39.3375528090409	-7.26382229216067	459
-39.1926056931011	-7.34097553162824	413
-39.7368168041827	-7.80327427529597	484
-39.8652238191912	-7.28523230953754	897
-39.6229680285787	-7.02083206462522	382
-39.2946187260622	-7.27233297391123	426
-39.6672774575633	-7.29805472257085	890
-39.5610334513203	-7.75090240623967	474
-39.1825996205995	-7.77989343193928	504
-39.3739384886868	-7.76305952211285	495
-39.5386141442009	-7.58878355351311	533
-39.9758466352815	-7.98678930822535	450
-39.0314827844762	-7.01074885448196	306
-39.716081989147	-7.16556706384173	701
-39.8120493729993	-7.60218440570383	562
-39.3747258085466	-7.8858490527369	448
-39.5098504557505	-7.27441114798205	953
-39.3037349458868	-7.93519452742176	432
-39.1487598156329	-7.52842869994241	659
-39.8823274765116	-7.6273389533647	900
-39.9270476061583	-7.07741240693137	556
-39.5324811607259	-7.07216496077314	550
-39.7685488783613	-7.42546148939072	744
-39.8406527598675	-7.39994554051005	868
-39.8535789469026	-7.86201250862574	434
-39.4692560025085	-7.78202749762871	491
-39.3307139690958	-7.70404121511216	549
-39.4340485384197	-7.98462317211673	428
-39.8837321629263	-7.97114316298406	470
-39.48830914484	-7.53388908768024	971
-39.0219585080946	-7.67275760531348	520
-39.2941105552433	-7.7401038950399	511
-39.7356506313623	-7.00153545285342	645
-39.1513849403111	-7.79854520546549	476
-39.5555037088735	-7.75456117091841	479
-39.4625252616513	-7.94315209807215	469
-39.844549355785	-7.5611767958843	712
-39.7729997251329	-7.91981094781132	444
-39.3248751952462	-7.62841198762819	934
-39.1617882568917	-7.4853390109537	992
-39.7528042285512	-7.55657829271367	512
-39.184092979877	-7.91007220140868	469
-39.6139086809492	-7.04746796237565	534
-39.8988198681543	-7.68793114024193	804
-39.1582484062243	-7.77647183891644	489
-39.0849133707064	-7.76031618143221	483
-39.0257472461399	-7.69221024274556	530
-39.5833378204558	-7.2875656871312	918
-39.5087372176588	-7.68278534671656	513
-39.0969398629563	-7.19562393934289	332
-39.1405359465807	-7.31630811021449	472
-39.8672027531066	-7.78298625587388	448
-39.9155733042515	-7.62027207306033	899
-39.0355362078352	-7.92151463192129	503
-39.4077676998095	-7.16285241662047	433
-39.4183425541942	-7.24958589414665	518
-39.2078187380901	-7.22809184280026	375
-39.5067078946887	-7.41248723852409	870
-39.9090356886245	-7.32854369764133	891
-39.0587743387559	-7.54844203287118	484
-39.3277388113111	-7.59638937630136	915
-39.2328042060347	-7.29158605501053	376
-39.9459251201984	-7.92419435096474	439
-39.9290127871302	-7.38800449451862	864
-39.1119316205612	-7.50558579361394	570
-39.7371795584414	-7.13415820036378	561
-39.2012349735694	-7.54446749745506	938
-39.7829143810371	-7.57211976984789	499
-39.4218658694816	-7.68532267807969	535
-39.0545618762862	-7.98721111843225	451
-39.4429953601924	-7.22802688166334	487
-39.303833163979	-7.56861445868275	691
-39.8768207219455	-7.29209518646669	902
-39.6720978341499	-7.60726819128295	504
-39.7089558365286	-7.08662898654732	442
-39.6689226925357	-7.57681196768366	504
-39.7095585921234	-7.97978329993972	443
-39.6303484023375	-7.46537609617536	966
-39.9390101757558	-7.79430826849876	427
-39.0696124724465	-7.04682126203214	366
-39.1484057013742	-7.45799258383229	956
-39.54989323916	-7.30890353027686	923
-39.9600471496417	-7.37578957916229	869
-39.4387059911851	-7.69156373273061	493
-39.8627797264513	-7.7539192959915	490
-39.4875957260173	-7.51915528268457	984
-39.726095733926	-7.81975204597068	500
-39.9981457310991	-7.03981751456092	545
-39.2000675613203	-7.92094363912408	469
-39.2787925795574	-7.5004933824789	923
-39.4524107193709	-7.8357910990686	444
-39.58877603341	-7.49171264365662	789
-39.6901041170678	-7.21315942281666	662
-39.2378925214444	-7.4265359760173	932
-39.6950641487496	-7.47961918938926	736
-39.8532217737232	-7.25091457949713	899
-39.8035103082278	-7.99083277651464	432
-39.0171816486543	-7.04338949109552	358
-39.4949591865793	-7.1283767561642	494
-39.8957417352938	-7.98690220345365	422
-39.9607447858173	-7.89455554131311	438
-39.3458445194744	-7.61412797246648	933
-39.5492838047035	-7.89921782000572	422
-39.1676438345987	-7.16137322076209	388
-39.2700697106702	-7.23024051929256	426
-39.7327631239046	-7.52358076143752	520
-39.5085405446836	-7.09923225417534	460
-39.3461203788796	-7.85718311620032	499
-39.1252557289742	-7.67671449418943	497
-39.0007367627361	-7.81677510966189	507
-39.4411439359257	-7.00842769174974	544
-39.3304433874062	-7.19069347492048	439
-39.5332574860563	-7.25716267685988	942
-39.1524792031447	-7.41602269874841	949
-39.8240620844766	-7.84418505568686	455
-39.4200152078312	-7.04960087342733	613
-39.6274094736062	-7.05674077397777	457
-39.8678244327417	-7.4218160242981	842
-39.4136097415484	-7.63460778406039	606
-39.397604931146	-7.54528692282247	916
-39.1709195863199	-7.68619773032448	502
-39.6675868989269	-7.15928953117121	795
-39.1751373670923	-7.45527901293935	960
-39.9745671835902	-7.46946434277871	867
-39.6464157056555	-7.70522952910829	446
-39.3894426204468	-7.88317691206874	473
-39.5039383313277	-7.01801688218816	433
-39.9749115591567	-7.80817448584641	434
-39.7529189297614	-7.8772411198758	470
-39.0527761347437	-7.02888482676594	344
-39.7043171318206	-7.7755841729373	472
-39.2126795873598	-7.27413866184708	412
-39.3762311820022	-7.5466869338082	900
-39.019882505058	-7.46342308216349	453
-39.7541789033226	-7.72840699206731	516
-39.8308532832805	-7.01744836024839	581
-39.698265560956	-7.70445812521432	486
-39.1254919988733	-7.45264837486162	930
-39.6288500397775	-7.50594328559662	654
-39.5578500691076	-7.68061395546812	493
-39.5679245924177	-7.44035998681067	940
-39.6654254915215	-7.30113593193082	887
-39.9629177875849	-7.06895719586962	618
-39.2256103239401	-7.29439587845748	383
-39.1223951184179	-7.20493966877027	347
-39.9268397285941	-7.16861231774413	668
-39.5507693441802	-7.18929385721283	882
-39.8814467206307	-7.0175300347754	562
-39.5481394194791	-7.58173421589077	565
-39.0020614321345	-7.35865115261777	359
-39.5395639808206	-7.5697212167492	598
-39.3110445966599	-7.91891239170854	469
-39.7677433311694	-7.61509354824018	492
-39.8888378106571	-7.48630341226315	877
-39.4226651100793	-7.69563991573927	524
-39.4045419800248	-7.14100016294699	491
-39.3523768395101	-7.86732919978418	495
-39.2572437063645	-7.8702803764836	460
-39.7736595185616	-7.29381085369343	895
-39.5079503609309	-7.8707612416847	441
-39.1437081316687	-7.20685995046628	370
-39.1109202974307	-7.5251649443425	516
-39.5816260269214	-7.58387875500564	522
-39.217664247251	-7.14846998252277	418
-39.8192488626503	-7.23854083190059	840
-39.3338566472108	-7.92181276270198	477
-39.9863549323112	-7.06187377018831	566
-39.8444491385657	-7.29808346959699	903
-39.8690790531287	-7.25103119652353	901
-39.8266939485663	-7.5162174348962	559
-39.9877966819259	-7.61693748606919	550
-39.4489395598738	-7.28594866636506	968
-39.0871275710845	-7.69162343072551	467
-39.7540239575461	-7.69778989020013	489
-39.3590317133228	-7.42776827132327	908
-39.9609055744863	-7.59641451745624	878
-39.2312556056172	-7.58281353337267	757
-39.8854898891491	-7.67750299842119	913
-39.6396198149151	-7.43171604257089	948
-39.2216291918412	-7.02734848626401	678
-39.8161642826014	-7.84374840428686	432
-39.8663141085709	-7.18672938828098	823
-39.5736250590998	-7.36145754223531	875
-39.7807365446634	-7.628655666303	569
-39.9840185992142	-7.53446444852307	870
-39.9358446908547	-7.31377404005661	885
-39.1715211550029	-7.89124971810619	536
-39.2674889823061	-7.50894180931145	916
-39.3752404241597	-7.45093428229329	919
-39.2094587242817	-7.67627105512513	528
-39.8232132374016	-7.59555132266299	538
-39.0763817774921	-7.0244323082085	340
-39.9109304651072	-7.75808900191377	454
-39.0930314222321	-7.94178741639294	493
-39.4469860687027	-7.7728337975405	486
-39.3328961501267	-7.92460588261865	474
-39.6939510730802	-7.30934856896037	887
-39.9657324290334	-7.479055380866	875
-39.9389920779889	-7.9035646478488	417
-39.8016731939432	-7.38441544792189	895
-39.9627738294132	-7.79995730131217	446
-39.3580435752789	-7.26650867592496	418
-39.9502675012283	-7.42271620330453	879
-39.1771729617479	-7.31204667718854	400
-39.2210009361869	-7.5161509548957	932
-39.8582009407609	-7.61025548355881	633
-39.637947187628	-7.52396081260159	644
-39.4762635077759	-7.52302004580297	965
-39.3417395385206	-7.77155353597576	551
-39.8594102491048	-7.99272167778184	440
-39.9007757111597	-7.1893532067135	832
-39.0244592007584	-7.72277614190167	488
-39.4047187796251	-7.32508132032247	835
-39.2500713519551	-7.71316976400987	545
-39.4165311623086	-7.29240647730171	844
-39.6079096484671	-7.24213420810464	920
-39.4772635588109	-7.47393525996513	905
-39.722261841639	-7.94637984139083	429
-39.8755240502662	-7.07370095976289	575
-39.8897101307699	-7.13845852093141	638
-39.3585803795945	-7.05753548548184	543
-39.7649492662043	-7.68850398093063	485
-39.1187155153827	-7.6215406969925	629
-39.3229409804328	-7.16357056166884	421
-39.1863623108173	-7.21219774385404	343
-39.2446757014538	-7.95981006389864	493
-39.5607418421047	-7.42918344511902	918
-39.638177532531	-7.16085165038587	843
-39.8616432144998	-7.43324000450431	854
-39.3613592734894	-7.83682886147223	520
-39.2796206355786	-7.87451232355877	463
-39.2093338061702	-7.69655276185138	532
-39.7922928506973	-7.13336678626369	639
-39.0414621870205	-7.52990793460039	487
-39.9364305992387	-7.63533739681413	669
-39.9979822962622	-7.09308117642866	576
-39.4586051381996	-7.6456298269789	556
-39.6921859277769	-7.06621147885349	583
-39.7696676174826	-7.7097288891429	490
-39.6690023616349	-7.41270687778015	938
-39.89692404847	-7.33849493398977	887
-39.2963564179604	-7.75873567113218	540
-39.1493240138555	-7.5230421975164	585
-39.8892911705282	-7.87938359732718	442
-39.422047381943	-7.54730840969677	909
-39.2928041883268	-7.81962772205482	510
-39.9194967928118	-7.89506979962201	411
-39.3200474286385	-7.1743696266749	499
-39.885858272746	-7.11260273583435	576
-39.0176924298419	-7.97453740811749	484
-39.6541628580715	-7.11046055958536	474
-39.6832046371691	-7.89244780742294	458
-39.0189342366059	-7.19313192067439	316
-39.0153730413043	-7.53633238625007	422
-39.8959208815243	-7.06444692392059	558
-39.9370625116813	-7.80684728900799	436
-39.7157234451337	-7.49939240592452	526
-39.8949292807204	-7.11843445670848	631
-39.3662109918319	-7.06636860602056	497
-39.3760893478396	-7.95345357337144	441
-39.2939117687672	-7.61654799584194	795
-39.352563931544	-7.31091712889903	416
-39.0149763976922	-7.94355877777466	479
-39.6835681450744	-7.15918008044898	818
-39.8426108566961	-7.87192311111391	431
-39.0099097774914	-7.86435704183179	519
-39.108807927069	-7.71155819303465	486
-39.2559343190357	-7.34137602250683	419
-39.0850228627406	-7.32529745543065	684
-39.7660283354303	-7.30591432838384	903
-39.0137373775356	-7.15302762444384	327
-39.489483165769	-7.34855999227778	898
-39.4891989311502	-7.62372243151823	545
-39.7451937261905	-7.67050326114435	468
-39.6481882421109	-7.4726548521862	965
-39.5935483683751	-7.79135305961096	467
-39.0051745974903	-7.80904235615569	525
-39.9456587556659	-7.6540367628927	606
-39.9691478214136	-7.5916843378527	874
-39.4544385205845	-7.05954237988677	667
-39.3297187890817	-7.29865990987456	504
-39.5708694330581	-7.65207795686041	482
-39.5071450285717	-7.00058551583422	408
-39.5297169054317	-7.16178200780763	695
-39.0091672326983	-7.26815972508251	376
-39.3628598889038	-7.30034425455561	455
-39.1448189251462	-7.71327854267293	503
-39.6177926661973	-7.51456500521515	641
-39.1911737813237	-7.74689542373256	527
-39.9147886629843	-7.78499059318486	437
-39.7456598552039	-7.01757937808774	704
-39.6098027044078	-7.56536159700665	507
-39.77259162774	-7.75782874704984	529
-39.3037345130728	-7.48673243776078	926
-39.9768073549852	-7.49636964858956	871
-39.8420470928986	-7.42322958472391	672
-39.8127310023374	-7.22853036486985	830
-39.9933437168805	-7.15114079186314	643
-39.0171257754817	-7.46769838949424	416
-39.4645060889266	-7.55502872642597	951
-39.2049237775205	-7.24011090305699	356
-39.9937093781223	-7.52822157127198	856
-39.9139861594503	-7.90396077071692	442
-39.9959193553494	-7.3859033676606	870
-39.0557243240502	-7.15160550418078	297
-39.4313963707729	-7.65575797883501	561
-39.1374563971918	-7.78306774234882	498
-39.1994622425302	-7.32979359941244	397
-39.0963739898704	-7.8698065789673	532
-39.9813076102783	-7.07606323858957	592
-39.6985981869785	-7.92659156973697	476
-39.7335450150875	-7.52295988743524	516
-39.559328030094	-7.75417901565936	479
-39.482665762992	-7.58058635812254	739
-39.5532911915244	-7.86791838087769	434
-39.2929753301334	-7.35013368997428	584
-39.9857173619301	-7.14605728168231	682
-39.0923162352907	-7.12229481779683	387
-39.4803837894467	-7.2206829824019	904
-39.4808462762527	-7.38661273998822	884
-39.8630648543253	-7.33095853092639	903
-39.2838164178886	-7.69985382536451	589
-39.3087288523574	-7.4419952691446	931
-39.6154015555997	-7.44516716329987	986
-39.8203134392167	-7.64407650545213	502
-39.8282950601769	-7.07952402125537	605
-39.5101665681098	-7.09359883633462	458
-39.7991639946294	-7.00519404389343	675
-39.3028380423947	-7.46564329520671	942
-39.3935921191063	-7.69202464574101	539
-39.8879079021975	-7.4549113662489	882
-39.6655266330238	-7.79785969043471	479
-39.3316136243521	-7.47947257057412	917
-39.4372733545867	-7.66697935183627	556
-39.0182008730814	-7.00061097620232	311
-39.5305776417844	-7.36565049554353	905
-39.4251031738819	-7.40641537830476	911
-39.7741780576587	-7.95941335684681	403
-39.7356725745886	-7.01622972265879	669
-39.2541438007274	-7.46619840767996	951
-39.2973173719622	-7.31732781665321	420
-39.3288725287936	-7.91864928883575	477
-39.6752913132878	-7.68564858078462	463
-39.8685032096494	-7.44579573481856	876
-39.5803557982593	-7.83936383952023	449
-39.8916094252173	-7.91782791803828	447
-39.7019400639749	-7.95600111264884	455
-39.4845068450293	-7.81074690520783	489
-39.4969355943495	-7.17623704662209	765
-39.902999944589	-7.68701350347656	721
-39.7394126630677	-7.89990622523891	433
-39.042484650671	-7.46752041520717	479
-39.9848470681961	-7.67267836274213	485
-39.7996797814301	-7.33576188816061	907
-39.3429271201738	-7.46150510979594	895
-39.2872149038782	-7.31990686826408	426
-39.307875411116	-7.79334753888491	536
-39.1870101895955	-7.43667730020793	936
-39.4908615328554	-7.29117691810344	951
-39.2532386156741	-7.60163014859468	627
-39.5681827029618	-7.20090110733935	938
-39.7460432684981	-7.52855064961311	515
-39.693819902131	-7.56391658527537	487
-39.7457016843752	-7.17256911231474	532
-39.2424013888451	-7.06200221960654	416
-39.0097593666551	-7.34478204580709	357
-39.085248083245	-7.65095573911852	485
-39.1734614295357	-7.99296886941862	494
-39.1195073793714	-7.18136985537558	367
-39.843898022274	-7.41815249727788	750
-39.9462329790261	-7.38962599243679	871
-39.7442177094014	-7.97119640391565	410
-39.7375039807562	-7.20908100350429	623
-39.155799487873	-7.63538253937448	602
-39.1186212210374	-7.10799449742359	370
-39.7998971919494	-7.69295615109777	507
-39.3539047828568	-7.32321487947986	426
-39.5370829969609	-7.20640427670538	925
-39.7207355048294	-7.48340378704243	613
-39.0777989902159	-7.97096059222402	441
-39.8365529338355	-7.92886931312467	456
-39.4813344605843	-7.74236767913818	489
-39.1463034917005	-7.82352636950077	470
-39.8957749141782	-7.25610302871064	899
-39.5304472940579	-7.17157866182115	764
-39.8558846633222	-7.27495430750729	904
-39.423931922533	-7.26813794504712	585
-39.2297852447241	-7.99708653074818	420
-39.1871187359703	-7.76659765017656	506
-39.9254740702917	-7.25170243265793	890
-39.8658417174578	-7.43377268144057	860
-39.381382958706	-7.61045222781654	924
-39.6298009704785	-7.26679907852707	898
-39.7791773885744	-7.94717248271996	426
-39.8129091977104	-7.55447002083369	520
-39.1178761864284	-7.68728312587236	477
-39.542741963705	-7.2709455999317	936
-39.3121888030148	-7.45409496725871	915
-39.6448677975196	-7.86625444883685	454
-39.9719857023292	-7.94790824198382	454
-39.9332307463945	-7.06638052159572	586
-39.3511673082057	-7.25452444900984	449
-39.8864743943064	-7.97798685510974	432
-39.821214856108	-7.36787460395939	904
-39.5643935889779	-7.18217081094018	888
-39.5342047821787	-7.94866456508462	427
-39.896133128483	-7.91355455118654	430
-39.3672312615166	-7.60666253000556	951
-39.9812437484639	-7.67742997704634	519
-39.2521866519191	-7.85510683866708	477
-39.798471395402	-7.96790574361378	415
-39.795613418278	-7.25881103366065	886
-39.5341305940827	-7.55899661180743	584
-39.1960244343985	-7.17858169822535	489
-39.5165427941054	-7.83821530713464	443
-39.4124824653093	-7.88167813684521	455
-39.6761766105557	-7.45540775108446	940
-39.1642996443147	-7.98034932979114	493
-39.3665560541644	-7.42341256042477	917
-39.5084791794387	-7.63003630812874	548
-39.8560668411503	-7.73823198565899	498
-39.4243357449526	-7.51823102616265	910
-39.6681709470603	-7.97717517597498	448
-39.6574281117682	-7.2535943795089	901
-39.1377943485454	-7.14675559477008	333
-39.5653488419625	-7.22796736657617	960
-39.822966085368	-7.35217553714889	906
-39.8632662966907	-7.61657554606076	609
-39.4051393296258	-7.70636654241815	526
-39.3418903965306	-7.8083168154941	503
-39.4513539837497	-7.13221297716868	442
-39.9728273803839	-7.00283946277998	494
-39.7487901919522	-7.0505510735015	650
-39.3841075998332	-7.39619255110871	947
-39.9095983564715	-7.89867414600458	446
-39.8431566156853	-7.52379706151145	622
-39.4386127099679	-7.32440100122471	955
