
-39.3131133583206	-7.8364911910697	535
-39.6789762587005	-7.57487772143229	474
-39.2906509743862	-7.56197920633581	768
-39.2619941363216	-7.62804874513357	643
-39.6070681574289	-7.50973676448988	635
-39.6005632352505	-7.07890470148036	387
-39.1932146786934	-7.16931971277466	417
-39.9350981331837	-7.76511289462101	445
-39.7032611090657	-7.71737983578368	492
-39.5168104041171	-7.46178846712339	896
-39.175566172267	-7.63795006203552	611
-39.9558835539095	-7.52726468748071	873
-39.4534568009146	-7.3379286955122	939
-39.7362460993258	-7.63532630108388	485
-39.4257101681029	-7.30508097858265	962
-39.2615389185182	-7.01263975284825	586
-39.6838322654191	-7.59277459690816	482
-39.9496971097171	-7.3967562036103	867
-39.2270469514702	-7.80014184529581	500
-39.0758598485498	-7.46716028630174	731
-39.3052951595158	-7.30828218286571	410
-39.7177657537647	-7.22328286186396	819
-39.4949564297522	-7.29210182551601	952
-39.2070113377756	-7.31589725239162	452
-39.7505857094255	-7.00579150726913	657
-39.093177636941	-7.97551327765167	467
-39.5921072641884	-7.6660355942849	470
-39.3488508159119	-7.70755107032054	587
-39.7346118904601	-7.23147517333457	630
-39.3007692210848	-7.32479151723367	447
-39.2097136359439	-7.52858895583708	943
-39.7341506865553	-7.95852271388763	422
-39.1419977383939	-7.01737417331018	424
-39.7133542081171	-7.27628655561568	888
-39.7942875327915	-7.390787203207	914
-39.5133166645375	-7.13478603393282	522
-39.5569605555779	-7.75107831163984	478
-39.7541679456896	-7.28891883115212	878
-39.4926872762715	-7.55142705985847	717
-39.5030507177932	-7.28858913217839	951
-39.6343618741848	-7.74753533320896	462
-39.1210287040739	-7.09287312848643	602
-39.2305332815993	-7.42943488212901	916
-39.7253716086299	-7.98452394484312	437
-39.0656223228909	-7.04756481687489	363
-39.8624947642201	-7.98083345927129	455
-39.1530926247159	-7.05574351917362	436
-39.1410384499334	-7.44808562292963	949
-39.988312017185	-7.22124227545431	766
-39.6167033567716	-7.93013611339714	453
-39.1143333727915	-7.87347501407172	526
-39.7271834167784	-7.64144071059968	474
-39.3230604902696	-7.75936583944724	550
-39.6092941819834	-7.08970256161096	483
-39.4005619959946	-7.87529539220717	480
-39.8888747158984	-7.39031921914035	855
-39.8907592295504	-7.18832608224648	806
-39.8034968874926	-7.60972638428979	654
-39.6779044135076	-7.30549131029393	887
-39.7180534727942	-7.89655783836425	447
-39.1269368876589	-7.86495473564721	523
-39.0621021016388	-7.71019097828666	499
-39.9526700335688	-7.04825724868941	602
-39.7513421485292	-7.9059111903391	455
-39.9879323878577	-7.28909089475793	875
-39.0156917238424	-7.387413562059	398
-39.1186727600319	-7.10459270006932	391
-39.5588668272196	-7.24279821584859	954
-39.0286647447914	-7.83098251929892	534
-39.7241424454898	-7.55743178589121	503
-39.6644468153719	-7.7550021822744	465
-39.4669869198251	-7.49034357192706	939
-39.5202127795662	-7.33431827271993	910
-39.861293670527	-7.11960415668415	614
-39.047529008916	-7.06829201638444	339
-39.8494142955275	-7.52030345532049	675
-39.1419461179374	-7.26764982433691	419
-39.5208380700704	-7.77689456321612	486
-39.0927496675237	-7.99158472782485	443
-39.8030551534693	-7.47988542366998	558
-39.9333744147699	-7.74398181744202	464
-39.9988944986516	-7.0330136506514	516
-39.1138757862369	-7.49889733263317	698
-39.9711618245346	-7.01368508235888	499
-39.4511134189365	-7.27471805250389	845
-39.2033355062645	-7.25556646012942	401
-39.6733757732112	-7.47936815445598	800
-39.2948309943914	-7.74048004612885	507
-39.6194920765736	-7.99582990912864	438
-39.2344362688249	-7.70490712447549	557
-39.9221849722392	-7.69903767841307	494
-39.0555288261924	-7.49124435215151	493
-39.9195373646809	-7.52346433925485	873
-39.4939162844929	-7.81121883555084	489
-39.8696180805324	-7.68196833714345	911
-39.7612554705031	-7.76512512612663	487
-39.8611056937736	-7.57270328598146	887
-39.5788961551463	-7.74101191865262	459
-39.3926234374118	-7.57404099688848	907
-39.8811179085871	-7.37061394432131	874
-39.0470218648577	-7.43012021578664	602
-39.3746268234783	-7.62514571953669	763
-39.7749827676206	-7.36719623446843	917
-39.7165350003719	-7.98207524262475	459
-39.977712503751	-7.32364248685449	884
-39.4728665178331	-7.93733001030298	440
-39.1837831207539	-7.09903258524259	391
-39.990501493289	-7.18204413945322	661
-39.6332288939376	-7.14034850940196	685
-39.3006820589303	-7.64011031237778	846
-39.1529481350015	-7.07533232589099	436
-39.5358617303186	-7.18252501967492	862
-39.1618091535963	-7.65293470336562	497
-39.1487494358759	-7.2362132536432	344
-39.2905512233545	-7.44995546914713	951
-39.3834517848808	-7.46047915751672	905
-39.5402557882865	-7.38674757139408	882
-39.3158265950791	-7.69607506049052	571
-39.6129230522726	-7.52692265919488	563
-39.6420842841819	-7.04689435217484	559
-39.105871880507	-7.84388833726658	544
-39.8916750237984	-7.32155442711419	895
-39.8163808291749	-7.88352347377463	440
-39.1589731263377	-7.19123713020045	378
-39.613541951271	-7.26280934147041	910
-39.931729076864	-7.3412531808784	869
-39.6436623998904	-7.77894807602365	490
-39.7825015084103	-7.38053593434932	912
-39.3573048712653	-7.95854049012112	474
-39.4917459814587	-7.66874943556603	497
-39.7078549516074	-7.90938078776373	445
-39.583117665137	-7.13713624880332	821
-39.0226856586641	-7.23941795063226	394
-39.0152339052886	-7.38153782656765	387
-39.7074749755016	-7.71917681552088	501
-39.2289306824092	-7.75884672017211	556
-39.0820838660518	-7.7219654192876	471
-39.2549094086182	-7.8956794843638	478
-39.5714830699342	-7.39481599916142	892
-39.7847714542512	-7.63581123330406	547
-39.8884453722074	-7.36523499271051	868
-39.328889674459	-7.00592002844661	586
-39.4744030564154	-7.71099754482242	461
-39.1036834595416	-7.80284425400008	488
-39.5308425211472	-7.65413439186108	513
-39.2058902553954	-7.05067376284735	632
-39.731962430543	-7.47233745018176	579
-39.9096691503076	-7.76315613690036	447
-39.5057515591904	-7.34381300873103	910
-39.3519415843281	-7.91925452198736	454
-39.3336419747008	-7.56384415136671	888
-39.4511691906298	-7.04090453150806	469
-39.7985307345577	-7.94217675359914	410
-39.7005846623722	-7.68778607319383	463
-39.9445549840422	-7.49933543162975	882
-39.3956833601154	-7.72382437250311	531
-39.0861727173685	-7.00269788372262	347
-39.8143368734174	-7.22708278509588	830
-39.4951970788883	-7.60424558805438	663
-39.9350706890599	-7.68610133515561	519
-39.5216265149172	-7.08924724984682	478
-39.9087221388513	-7.708849985334	615
-39.8316066911894	-7.67011074172399	821
-39.6312813398499	-7.41155864481639	931
-39.9304111033498	-7.75166612374893	447
-39.5575974389023	-7.21911166563709	957
-39.1461319809399	-7.1689719451874	403
-39.8812551301215	-7.03607285301794	558
-39.5642752113538	-7.29853431659147	924
-39.6041047753109	-7.9091230147516	449
-39.4029185616458	-7.24488208705064	458
-39.0871787178398	-7.00334508094878	335
-39.5115632056139	-7.80032946064713	464
-39.4420968473803	-7.16283717422687	717
-39.3987223711552	-7.02810617960662	497
-39.6475673450571	-7.05274739065082	485
-39.5258290958415	-7.34623650426213	908
-39.390025348579	-7.20110004826399	411
-39.3568440918339	-7.14047438932873	411
-39.6847196830371	-7.42124040572512	938
-39.5283919292106	-7.54622551093523	618
-39.8177006585663	-7.19739565657172	812
-39.7403380885564	-7.531364239702	508
-39.2442194220874	-7.45051652482094	946
-39.2818276029003	-7.33334380613985	454
-39.0588756072602	-7.00839239074669	337
-39.4900747170528	-7.79129281193392	435
-39.0451090368246	-7.75587004373972	464
-39.1852678250619	-7.52319977614025	879
-39.8151889276053	-7.88364154253996	436
-39.9109472311818	-7.06146603035265	553
-39.2264145547475	-7.80171736695151	497
-39.3121355240952	-7.9238343035652	472
-39.1422693802193	-7.41666220085822	926
-39.898328421969	-7.65630974003729	904
-39.5099353776097	-7.60005050587932	727
-39.7402309075482	-7.79878709397311	466
-39.7854532494022	-7.17235556761694	655
-39.4777327144333	-7.66749121392231	504
-39.3642116751071	-7.73600545519305	522
-39.4398065729129	-7.1884072195887	788
-39.2797854684349	-7.20371684119067	382
-39.1630072544906	-7.37729964273009	531
-39.934172448095	-7.60491515955979	881
-39.0829889295973	-7.13053870977906	371
-39.7955798476548	-7.14399326182284	734
-39.823402796958	-7.97529616919531	447
-39.8620059213095	-7.95469313016878	484
-39.2700922851864	-7.26512383749883	441
-39.3304486454022	-7.78274816016235	501
-39.868470529585	-7.74101821780015	496
-39.1685978013497	-7.35000329794664	464
-39.9169104493819	-7.3184801587317	888
-39.3714368248	-7.15072673827575	435
-39.5199789737038	-7.54018020023824	745
-39.7811977112714	-7.10529632798851	516
-39.3986249512276	-7.39907454425152	937
-39.4273507266606	-7.88270233164078	473
-39.8438279388517	-7.7786280780716	470
-39.4851577445625	-7.23115348536057	929
-39.450857805471	-7.37320516512981	927
-39.6590091319898	-7.13440871064499	675
-39.5716253500121	-7.04555580543763	444
-39.0331129745363	-7.55079274516425	411
-39.224100023534	-7.58590431969076	728
-39.6269362566724	-7.83399808396363	477
-39.788343593622	-7.0647693110293	680
-39.2944910762251	-7.64100613685888	785
-39.6890698120968	-7.39289501705858	921
-39.8574235487216	-7.96603595482954	439
-39.0027380323068	-7.32218705905534	338
-39.5705959170136	-7.20628802603972	950
-39.0166937307971	-7.63543774189921	475
-39.0130757899977	-7.36868375102962	377
-39.8339993876186	-7.52836953113605	587
-39.5785568975352	-7.21469143966138	950
-39.1541309972897	-7.82341980924962	482
-39.8560817439573	-7.60596683704715	611
-39.4809522523088	-7.18149554499643	784
-39.6066651164836	-7.79016100925432	492
-39.7186672964342	-7.85200905554814	469
-39.0288981521324	-7.70964569905791	511
-39.6906269917602	-7.64749241316279	450
-39.739557949223	-7.74065672337587	517
-39.6269374790167	-7.24406727245838	902
-39.2037026152624	-7.36881465759416	471
-39.84725862606	-7.66685700033189	913
-39.6995974674667	-7.63660288529176	446
-39.4485223391422	-7.32116015483693	959
-39.0102137346634	-7.9964022428436	476
-39.0362250770168	-7.91829608758094	501
-39.6687742992539	-7.63270428202431	492
-39.364698119885	-7.46375241576491	903
-39.7120262899001	-7.38795771879185	919
-39.7075567087492	-7.48320409269873	670
-39.4920972612945	-7.83504048349322	457
-39.8188569446503	-7.90089803113346	422
-39.7745073834199	-7.68539480496305	510
-39.4932812985319	-7.4730435680035	918
-39.6825363222296	-7.23142946252179	859
-39.605598196249	-7.21989469838148	933
-39.9217749898183	-7.50125005945551	879
-39.7237586684818	-7.38861023326936	927
-39.5463255504601	-7.90084803916081	437
-39.1025320819254	-7.15909301488646	317
-39.9817611278788	-7.68299974076933	518
-39.6513672354932	-7.07357699605662	499
-39.3262365572484	-7.64759634290203	941
-39.8344372814889	-7.95996966648606	467
-39.7831162718175	-7.59571682106986	510
-39.2071883850011	-7.05698854501996	488
-39.3196449477754	-7.7657833560971	526
-39.1847721624181	-7.4037119979316	783
-39.8115614130483	-7.34910791703045	912
-39.563140683928	-7.52261211377672	621
-39.5902435449898	-7.39771681916634	887
-39.4938478185555	-7.74500096420202	490
-39.93800366927	-7.22628480691109	874
-39.2705276058305	-7.22087105797287	409
-39.2336374997937	-7.36959557726804	494
-39.7599835721442	-7.56210560293375	498
-39.378833473506	-7.097746515096	436
-39.1218607634384	-7.8820027963505	519
-39.8725889517573	-7.03738616871323	539
-39.5595761039461	-7.909309949936	402
-39.2567907584816	-7.68721715389064	570
-39.3219195206788	-7.2543032775326	406
-39.8176608014704	-7.40783643090603	892
-39.6036326788188	-7.7584906585239	434
-39.0399309576271	-7.27195965976747	407
-39.135883672848	-7.97466696947208	506
-39.559141700425	-7.54271409899537	677
-39.5680106106165	-7.14104460099832	705
-39.0267047695544	-7.01803346071005	338
-39.6104282260017	-7.68568383658735	464
-39.3853695407091	-7.99138130202837	449
-39.8868507941831	-7.82989747402765	450
-39.8873894645781	-7.35120934408775	890
-39.857303311121	-7.95942816151546	455
-39.4333401784986	-7.79651758985595	464
-39.0919716443216	-7.65805742297571	492
-39.4397782881914	-7.4152199179922	903
-39.5804430403555	-7.88793411258971	419
-39.3720084483744	-7.35477192981161	581
-39.1969354620749	-7.62531037829079	586
-39.6936711893846	-7.31679852257599	894
-39.7173722714868	-7.16129098202011	710
-39.4948345778396	-7.04388613009049	498
-39.3465991694853	-7.70921242785258	597
-39.3788769878128	-7.27004040290526	459
-39.762012861599	-7.68407580538848	492
-39.5375962329037	-7.57291442316577	598
-39.589358977096	-7.11189144918624	536
-39.2867929123457	-7.08441571534513	422
-39.4448257714466	-7.7457332803148	499
-39.5070587717696	-7.21777461785533	952
-39.3746556496358	-7.44896730101759	917
-39.3401839279221	-7.92030362877756	471
-39.0389268451684	-7.9454406071173	461
-39.1070016109664	-7.54037052349329	488
-39.8040236607014	-7.58297963507106	519
-39.8028694681775	-7.81527697020619	458
-39.1832338730366	-7.71732710872416	514
-39.9849975331633	-7.97194891937178	440
-39.7088101847664	-7.71461563132189	488
-39.2053739695218	-7.97284672784662	453
-39.6767434371706	-7.04307746745623	517
-39.7200217039823	-7.47145919202099	601
-39.4738180342771	-7.61076298158692	547
-39.3050186507307	-7.39740277347922	954
-39.1540852218898	-7.17008760848763	374
-39.8141417337624	-7.65273441990551	512
-39.4725589281754	-7.68067238850949	637
-39.6186101688839	-7.53440006318007	565
-39.6340524521345	-7.89576103877052	478
-39.1631192161565	-7.51199334818991	623
-39.3569715048116	-7.25438976316088	422
-39.4031283033416	-7.62797435214762	638
-39.4225958404864	-7.63993017782285	601
-39.9555914468133	-7.94794628748189	456
-39.9574861302439	-7.26386499010774	867
-39.3012486879563	-7.84180274369699	501
-39.0007801692918	-7.39786206542591	459
-39.5976773412625	-7.00446887152924	352
-39.163174791673	-7.28120890357519	390
-39.6108402003363	-7.43173362561745	945
-39.253961969105	-7.90416529535899	455
-39.9646032962384	-7.23711686906839	839
-39.4594180691867	-7.17802432553407	787
-39.9143233878083	-7.24908496967614	891
-39.5735341036568	-7.42983516156439	945
-39.7595438681488	-7.03660893829605	672
-39.5103160330157	-7.98148358281806	433
-39.4773462549032	-7.95922129405713	466
-39.4429801778179	-7.28124027261614	808
-39.6427409528561	-7.96465195763195	463
-39.4370955627327	-7.18963914964086	724
-39.6513351036729	-7.16618950068326	837
-39.9703429023116	-7.67819680087191	494
-39.2134878903304	-7.06744565194382	433
-39.8468536223116	-7.54722094593758	699
-39.9486491287983	-7.62222912424833	651
-39.4188938751602	-7.52083641341924	906
-39.7105278258342	-7.63405325193282	482
-39.8815702870377	-7.38951778975678	857
-39.521987670037	-7.93280797657125	426
-39.4667615957249	-7.52203458379893	963
-39.8320095749811	-7.2270029158136	864
-39.4973540890065	-7.63815581739577	543
-39.4212083288554	-7.97111457051265	436
-39.5157107161516	-7.80929075207486	442
-39.3991010023284	-7.08797348415486	472
-39.8234369641126	-7.37370703683618	897
-39.0599795557864	-7.15873124987277	306
-39.0388755210851	-7.41252418909141	478
-39.6925563177587	-7.20482977507318	603
-39.5513408416129	-7.33885239039722	917
-39.9163150902185	-7.94882841462598	413
-39.407091294127	-7.89145004980278	461
-39.9597514130008	-7.88364869857175	424
-39.3629703417444	-7.74641898978337	484
-39.4734519355455	-7.07820931750504	459
-39.6769308651094	-7.54453907356508	522
-39.4713469891171	-7.36561214094545	910
-39.1869936553735	-7.1726808527923	406
-39.4966523949714	-7.00013685231637	414
-39.2911380301199	-7.08858078338667	441
-39.4606982737858	-7.90220063671603	454
-39.0356113748106	-7.00584560319819	311
-39.7967875617907	-7.02519561357883	650
-39.5276895330013	-7.31576104799362	921
-39.1307738115131	-7.24811438722474	409
-39.0799710691874	-7.89333646416282	500
-39.2205635623353	-7.7951467626805	537
-39.8244857627954	-7.93124013075173	426
-39.3751543937377	-7.13526834917228	411
-39.0520293605111	-7.17435600531253	378
-39.375455504727	-7.81430274346191	473
-39.8244944416037	-7.39196715534389	887
-39.5656837574451	-7.61335372694178	531
-39.4093879581515	-7.28495081490418	639
-39.3182605355516	-7.80839570019306	527
-39.7418821046419	-7.58832502361303	475
-39.1474696453522	-7.44380563269914	948
-39.6830704180189	-7.48247707644398	730
-39.3362080879494	-7.44563375976485	909
-39.0373379319862	-7.37025290865622	412
-39.5613740489786	-7.40320391624731	885
-39.7528687844148	-7.22658528302169	533
-39.1163072032615	-7.14108005248916	324
-39.9540240272049	-7.67327196904667	533
-39.9349240366488	-7.37711535335229	871
-39.2017217906346	-7.75053866124093	534
-39.746119778689	-7.42003157504997	799
-39.3929744824331	-7.15992644426226	415
-39.9016675232245	-7.75758937228465	474
-39.7557386113556	-7.98966605424152	399
-39.0538328549083	-7.14128773950924	326
-39.9619056027623	-7.97950559595825	458
-39.984614007789	-7.34062466551242	882
-39.9503920083613	-7.86363605136283	429
-39.4192244932577	-7.29313959115064	853
-39.2995522016734	-7.18396366165921	374
-39.1889431623962	-7.80930323621036	539
-39.7389981603872	-7.86829383200804	449
-39.860210564071	-7.93580445897911	474
-39.1397234855226	-7.92440315513749	513
-39.9240091827937	-7.58407100780813	883
-39.9309844714419	-7.75169738240841	453
-39.066910036906	-7.75856595414533	475
-39.0170013410321	-7.844187002997	518
-39.3132384842929	-7.40864546500464	953
-39.5919983868559	-7.90341049244943	434
-39.6055307194917	-7.10281096323819	493
-39.7465695261183	-7.09825156654084	470
-39.2602636467003	-7.91126430553614	459
-39.2761816277014	-7.52930270484556	908
-39.3803166519342	-7.51253947271605	888
-39.0958314677955	-7.81493916648261	491
-39.3217942796534	-7.77207943739753	512
-39.474319950562	-7.07983275830756	452
-39.289516873458	-7.57407657191338	648
-39.0238974659335	-7.48219414218861	459
-39.2171856755476	-7.92209836848645	487
-39.9451016949733	-7.37546333127665	867
-39.1843066536896	-7.50266559427897	962
-39.9094528655108	-7.29735262520334	883
-39.6622447818235	-7.49810967138642	646
-39.8259589041362	-7.77669504527207	504
-39.1991404228078	-7.17815837671511	443
-39.9185677100505	-7.34708838544	874
-39.6257329046148	-7.33417020236814	868
-39.0254574916939	-7.97856823255029	486
-39.4051284572323	-7.12450187682139	476
-39.3990018877719	-7.9133317221748	447
-39.9527233222258	-7.46015635341243	873
-39.4449453550655	-7.15030511907873	723
-39.7575887485695	-7.35641495576352	920
-39.5210617179626	-7.74836992251859	491
-39.1503958630722	-7.44896493596213	947
-39.7662363159826	-7.625687724029	513
-39.7534858900954	-7.09482963689108	449
-39.3054230651855	-7.82832439234585	537
-39.8160183402886	-7.44403512379363	631
-39.7398218421613	-7.80061837018983	469
-39.8060208740585	-7.00430475530425	719
-39.3425189877027	-7.39635263031726	932
-39.671268312598	-7.85404593403326	495
-39.591137603506	-7.6872717730653	479
-39.5844407715647	-7.50537091764481	735
-39.8045798850948	-7.49173122935567	544
-39.0482144225759	-7.58961061378058	525
-39.716420873954	-7.28923943814516	894
-39.1348939852819	-7.44557191392261	938
-39.1862127342006	-7.69885005541212	522
-39.2786952282075	-7.55962043149757	778
-39.2622961891011	-7.84700087393659	508
-39.5080885013222	-7.48988787279105	953
-39.2481662517213	-7.89527506980192	461
-39.9297967586621	-7.354106364716	869
-39.8199899564433	-7.61659279166708	742
-39.6907963586939	-7.65468266533349	448
-39.3103511067006	-7.65018367093684	931
-39.7243282781044	-7.86653561722956	443
-39.1137127259026	-7.75314897678041	495
-39.3525251900775	-7.51492957829167	839
-39.8919174490839	-7.32797341362786	888
-39.9220151040332	-7.93933348010212	424
-39.1406121537505	-7.98633409328751	506
-39.715994801312	-7.65864189326138	473
-39.5744989877204	-7.45729700161238	964
-39.6426753824882	-7.97467785993373	447
-39.3176372357945	-7.31915015498617	429
-39.6258508001386	-7.56764501213439	546
-39.0444590027991	-7.31001359306459	447
-39.3821417004924	-7.62941907566609	684
-39.6741586560142	-7.87670084111292	484
-39.9120161780891	-7.78762791988652	450
-39.9448291482746	-7.79683473781544	432
-39.8089440054659	-7.07625746024547	612
-39.893911371731	-7.007605650881	592
-39.5671391715313	-7.61786563965585	521
-39.4515518781498	-7.35985001099834	926
-39.6857106976508	-7.25941063409753	896
-39.9589414762745	-7.83733862715085	449
-39.8264223870191	-7.27468978512984	898
-39.3547771884647	-7.25884186213563	442
-39.7249624699796	-7.68202263743572	476
-39.5177098113899	-7.65942254294019	515
-39.9656192336899	-7.15058137078558	629
-39.645257706943	-7.52486302696724	645
-39.1481534759875	-7.41272945267186	942
-39.9743719394732	-7.02266328473674	487
-39.8805961784133	-7.37044862644646	880
-39.7161440770243	-7.88927803515002	452
-39.980928842053	-7.97332099053428	446
-39.6987228628264	-7.3070449409078	889
-39.6728221283233	-7.13290956417043	565
-39.9811273610815	-7.04968644164924	562
-39.8282850967367	-7.72667928528182	546
-39.4028022118195	-7.50016410404797	908
-39.5738299102843	-7.64938627297546	507
-39.9214424783285	-7.94691645045785	435
-39.2115978892599	-7.61477456767266	614
-39.8613009730438	-7.01472503441917	570
-39.4516036028015	-7.68248661031857	521
-39.2860343341022	-7.92966832913669	423
-39.6293993326049	-7.22812046167727	912
-39.0005855748126	-7.41282794119362	460
-39.5083725998709	-7.84663622755694	452
-39.4724011010537	-7.1240612072413	465
-39.8948931325754	-7.68784790504227	883
-39.1342506435928	-7.37065629071053	457
-39.4444275879615	-7.86928996759267	444
-39.8274641077965	-7.04796763946229	633
-39.5145228566364	-7.30936891127812	923
-39.8196963263257	-7.33311201945707	908
-39.4758066494249	-7.79246958783825	474
-39.1305580937462	-7.97503137670448	504
-39.176299155862	-7.07723526651604	377
-39.3837655880139	-7.10701517900208	399
-39.8940976738532	-7.69832045216474	781
-39.0564508612309	-7.65795584128646	498
-39.0769788709176	-7.86565125453901	540
-39.9125310140853	-7.08014122925133	555
-39.1406194454314	-7.89086106570964	495
-39.4642770405806	-7.80817647074955	498
-39.5308637226404	-7.72075366096475	475
-39.5989049474339	-7.67525140341348	443
-39.1515285460513	-7.28477446958243	399
-39.5194629868718	-7.15457452025141	548
-39.4149181919601	-7.48218316234393	866
-39.82211389308	-7.46927677485639	596
-39.9763943313566	-7.7714537629631	450
-39.7836410940789	-7.33223144863147	902
-39.6600037277554	-7.05008084502162	458
-39.3225948310659	-7.00452133649561	463
-39.378370334975	-7.18076801590931	435
-39.5704199707479	-7.80070723713031	431
-39.8595861791522	-7.80888008702847	479
-39.148497397586	-7.84869584364087	509
-39.5105395428552	-7.11074197694921	453
-39.7574963034762	-7.50207202991344	607
-39.1472743552627	-7.69613845605165	488
-39.0886994190263	-7.68501242719861	493
-39.1658080600652	-7.28210730012411	375
-39.8252132169085	-7.46740858885749	609
-39.5020574422866	-7.41357486006563	871
-39.4799888848489	-7.01132592323015	432
-39.5594046531034	-7.12659971024674	535
-39.856032418254	-7.27830920960437	908
-39.5168945355993	-7.84080419414378	451
-39.4299073300852	-7.01313821716904	655
-39.9694321908768	-7.52752266909676	871
-39.6982998423758	-7.69585498914455	460
-39.8898622529692	-7.94313007693802	441
-39.1515153525514	-7.60358102719534	544
-39.5093342074847	-7.32019985303525	921
-39.9031100260019	-7.91707886198213	433
-39.1783825175611	-7.13674293245124	372
-39.2575534953659	-7.50406763278976	913
-39.5081206302657	-7.81278551784926	459
-39.3252098918126	-7.62355663771407	934
-39.520389546702	-7.25642102784827	955
-39.7485929186082	-7.41350794123238	908
-39.2175684193292	-7.99293891999613	431
-39.6258797216344	-7.30029052111438	899
-39.2246238888804	-7.59666030017374	664
-39.8522540130376	-7.32980610035485	900
-39.5410548902058	-7.44109012703856	902
-39.655676099632	-7.3796100354556	927
-39.8535284258843	-7.54811177087708	719
-39.8340933615791	-7.51854136469582	581
-39.9738218011244	-7.89651640631214	432
-39.4065041877459	-7.59284671462471	920
-39.1249085863671	-7.60997319989333	597
-39.0803932056143	-7.48608477241452	719
-39.7868647467007	-7.47841880554187	555
-39.657420325288	-7.73665037637072	456
-39.6590131228421	-7.42656271817366	944
-39.7418434290749	-7.0549972150618	702
-39.9934177379606	-7.17002153692854	617
-39.1881234305879	-7.08540958338869	424
-39.4601134847165	-7.89715733364187	447
-39.4764189892963	-7.15748292655842	582
-39.8027790153519	-7.62430115690563	667
-39.1975026508866	-7.22000592989223	358
-39.0923991600232	-7.74693179781579	496
-39.4600398040576	-7.33415385223141	935
-39.0560178467854	-7.41231985346697	579
-39.9511781988433	-7.03200957476567	563
-39.3071054733866	-7.50509461973244	910
-39.5760803202371	-7.88057922230999	422
-39.5002845128996	-7.72140011892169	472
-39.9167663975542	-7.23804318767998	890
-39.2508816833817	-7.41324357942545	934
-39.3883563707521	-7.51884539072241	893
-39.7385742825762	-7.85079219354104	470
-39.357386729177	-7.46955050605707	891
-39.2347451851589	-7.04042632126942	639
-39.073042051161	-7.45014420526189	876
-39.759006816879	-7.88834500163948	473
-39.9283427362542	-7.45600320406048	882
-39.0337636728141	-7.08649541950815	313
-39.0587754237602	-7.04710120054556	374
-39.261739094363	-7.55248013786288	902
-39.5154863354706	-7.47321714880376	918
-39.3964117604091	-7.57719048911054	920
-39.5343075789239	-7.82140569945402	411
-39.4008833992979	-7.94509413982753	448
-39.283310785295	-7.00151005333218	641
-39.1790453725277	-7.78642312338887	510
-39.8698495377135	-7.04768187780995	604
-39.1197330261168	-7.00976521432613	355
-39.4099380217538	-7.88489058645819	456
-39.4003690266725	-7.4467308206006	883
-39.1676981005095	-7.90278451575058	500
-39.4414557538974	-7.82347247934217	461
-39.7231089509969	-7.30458616744359	895
-39.656235258143	-7.31667478991025	890
-39.6483052351809	-7.68105769175078	469
-39.4657570055758	-7.01435356146472	557
-39.7942145058624	-7.94517835689762	406
-39.2981455005952	-7.57396779944396	666
-39.4117626041139	-7.21627091983638	421
-39.6197134951514	-7.20770820227582	921
-39.9315606890135	-7.71891519345439	480
-39.4568060361845	-7.37353720759013	912
-39.5086660291976	-7.42876483837825	863
-39.4395192060919	-7.32988302930652	956
-39.1165323195949	-7.00108262364923	334
-39.8941006403558	-7.17986786540919	799
-39.2061333248523	-7.56641475757505	932
-39.6156549817435	-7.30297122009189	899
-39.0947818097193	-7.28658620462979	466
-39.86937472554	-7.39389423433768	865
-39.4318769471727	-7.24732170672877	527
-39.0064591524779	-7.39862472703893	410
-39.3897625112856	-7.67609120659396	570
-39.9393413077921	-7.0929733295907	571
-39.0353458056431	-7.9596717180379	455
-39.24450942136	-7.53877123063955	915
-39.1043719580414	-7.01004686879123	330
-39.5492817528861	-7.89938012379661	428
-39.3989695712904	-7.09128306683469	435
-39.0101811397269	-7.49248384274253	422
-39.1039079108608	-7.03316014393277	451
-39.8955387291069	-7.61084930714554	899
-39.2193994127378	-7.58317626359804	752
-39.769892442849	-7.07750395094083	578
-39.5298972296957	-7.59982465273986	568
-39.2093991028942	-7.4011696852483	639
-39.5130136338622	-7.296093212607	935
-39.8650554208456	-7.51022581513069	875
-39.2824925382353	-7.8445452855786	461
-39.124778920247	-7.83327522241457	529
-39.1180607160387	-7.77484875757618	491
-39.2218707252777	-7.21395952808872	358
-39.4154181939095	-7.46313044406291	858
-39.7820923134955	-7.53978418821916	556
-39.5604710634442	-7.05663154175009	417
-39.8726476670444	-7.28962167411714	898
-39.1199540639115	-7.91873203662608	568
-39.1838258648695	-7.45194646658226	943
-39.9833356303266	-7.86717588032415	448
-39.2012185754165	-7.69110938459357	543
-39.1301882319064	-7.40825261285307	758
-39.9274976905331	-7.16816937884994	660
-39.3067431310923	-7.85980745462783	477
-39.3258887604741	-7.64826253099918	942
-39.5629390685595	-7.03315159836176	390
-39.1335102201773	-7.25807475116363	374
-39.0029937887487	-7.88758314102532	501
-39.6912128508711	-7.95982653871615	461
-39.3622849849711	-7.55137036758131	894
-39.1333584597287	-7.49430980982864	780
-39.4219646682897	-7.77209497828964	491
-39.8890646591528	-7.43028311883376	874
-39.438564602559	-7.2462537727729	547
-39.9191131800214	-7.12562228312668	597
-39.0896797881817	-7.90530217135725	483
-39.9904680699541	-7.39086971554201	863
-39.4946175927253	-7.34774928988577	930
-39.1899762186046	-7.97950583455862	461
-39.2317905297661	-7.58285170007917	753
-39.5162464153472	-7.00090569038728	411
-39.6381689506386	-7.03028384058935	441
-39.2721420374725	-7.93278957696979	464
-39.2099518417968	-7.57986281436659	777
-39.5584083921075	-7.60403035192754	552
-39.1955238872933	-7.19338678828688	361
-39.5573870920054	-7.71856095889802	454
-39.5425670720074	-7.1469666571632	613
-39.3990040309008	-7.74309226145099	496
-39.5302009338798	-7.09584184961679	519
-39.1967488102858	-7.93865442300961	495
-39.8755161441149	-7.87544131900474	459
-39.3074738344989	-7.40927383569161	948
-39.2233146971545	-7.60115743425269	638
-39.8144081040533	-7.5161122499736	544
-39.7191952120491	-7.08224715215401	439
-39.5641771119567	-7.2770179951736	929
-39.6447746206772	-7.9855149164239	444
-39.6334196352995	-7.27014596737631	900
-39.8284836555355	-7.95124932638992	435
-39.4917604020396	-7.06442979097796	600
-39.4730693640043	-7.77169710378691	471
-39.940076887821	-7.19384289448072	812
-39.8550028114212	-7.00913793961102	614
-39.07233679782	-7.78077958529214	490
-39.4254461700562	-7.60273235689349	781
-39.2528448554428	-7.26006367053382	413
-39.9842769627412	-7.51131760264188	861
-39.6436837013563	-7.86032584706731	458
-39.4085416614251	-7.23125089047925	442
-39.9113338894328	-7.53535961293037	885
-39.2520321031755	-7.8194592358735	526
-39.5305218898779	-7.24939788119123	947
-39.4148822751935	-7.52828539961751	880
-39.285544344846	-7.15569754981844	371
-39.7174898838534	-7.08102187536121	444
-39.5897152189253	-7.75462540374595	466
-39.6014404846864	-7.9706677459756	447
-39.8256303667778	-7.01783766514966	589
-39.8876237892721	-7.90490884625019	445
-39.3733622213087	-7.05090305174781	694
-39.9131871597541	-7.16847730442866	766
-39.9561250113592	-7.05660724156892	574
-39.2797829017671	-7.25165732165432	427
-39.4208939349787	-7.62241355595642	625
-39.4917104423965	-7.81355284588189	488
-39.0300713318361	-7.82586777761177	541
-39.1960495792917	-7.34339751034832	413
-39.693433046518	-7.83112861719566	485
-39.8252841286302	-7.15891024959828	688
-39.2582504439529	-7.29681367416482	388
-39.455172134632	-7.41496331901991	891
-39.1106496267205	-7.09488371195431	598
-39.9520997116634	-7.82793949003255	443
-39.0847380757959	-7.58478435864087	434
-39.2361080228872	-7.97628657559055	447
-39.4811434517695	-7.60610619903773	555
-39.325367615109	-7.97640066536512	432
-39.0531995524397	-7.21413271589737	418
-39.9874822390354	-7.83713961087047	444
-39.8245091874144	-7.05140705665543	584
-39.767717840243	-7.4661502411634	569
-39.538576043346	-7.44161351379078	901
-39.7576399149844	-7.42708469659551	659
-39.7978536296561	-7.09227635541535	578
-39.0587654587327	-7.2056201269879	382
-39.5713711645257	-7.57842740106479	528
-39.0278329204712	-7.58115015220537	520
-39.4162818427239	-7.21913666702952	422
-39.3300618972129	-7.11168420791201	396
-39.0207947470209	-7.32698376830286	351
-39.5199940741421	-7.19080495602426	863
-39.9809029730517	-7.304951283075	884
-39.2759740195967	-7.31589330688538	454
-39.6690739324165	-7.18343311230346	852
-39.2569428555388	-7.66360329446394	673
-39.9573353843469	-7.71095082312508	480
-39.2088868719939	-7.13784647943771	444
-39.6654460090792	-7.64145149977574	486
-39.6255848408882	-7.22159704979727	916
-39.0589693285655	-7.00745569159879	316
-39.9042831383719	-7.77712685161171	454
-39.5745599287999	-7.28693255888701	914
-39.4682931629666	-7.90189870321332	471
-39.5729763803483	-7.42173502228804	927
-39.2547646352523	-7.94507164936691	437
-39.9664914797412	-7.49734453809291	878
-39.1597366969737	-7.08522158962619	508
-39.5143493550977	-7.54697908704899	632
-39.6257963291117	-7.45856821268737	956
-39.2268380715054	-7.17194706899753	369
-39.0896790338206	-7.58954884128409	453
-39.0984185041897	-7.37811373378566	601
-39.2268826112367	-7.94044679701086	458
-39.7490760426477	-7.87905853378397	465
-39.2355053773729	-7.75356428120118	523
-39.1059206029918	-7.05277596464199	445
-39.4270527630753	-7.35807202410348	934
-39.9255271153498	-7.18267129869014	791
-39.3330593787967	-7.78110660072442	486
-39.3076558667228	-7.34694383170632	604
-39.1560217860958	-7.06859830002732	434
-39.1577268751932	-7.84961091108865	509
-39.0697816172974	-7.47813871875217	639
-39.2046621892584	-7.14416805797198	430
-39.2702059753645	-7.59484491395984	665
-39.5054594705645	-7.38681926208175	902
-39.8761237001052	-7.42325989137063	864
-39.401711931773	-7.86046490568731	457
-39.8382752858575	-7.43268754523414	621
-39.4244861384687	-7.40366387866692	915
-39.5156454242385	-7.3306492823534	915
-39.9965006491552	-7.27106014203726	850
-39.4382481116438	-7.79327597419926	467
-39.3171877259323	-7.01719216436587	658
-39.2297866957565	-7.95232557512174	459
-39.0066021443835	-7.5906756890041	504
-39.0625951390473	-7.30384599531434	450
-39.366329220208	-7.87443362728423	486
-39.1846412706419	-7.14983921084196	420
-39.5252428082925	-7.61353005257045	516
-39.5443880079928	-7.87466405416316	432
-39.683826762367	-7.17081623913687	827
-39.6308077420866	-7.33522066012032	877
-39.750952227458	-7.56928024893291	504
-39.8606930525364	-7.30713105981611	902
-39.6226301837937	-7.73143912932669	454
-39.9218926286658	-7.80779546012456	431
-39.8710222311418	-7.60726748906309	744
-39.171832500655	-7.9216336288059	507
-39.166202777771	-7.32112824344689	448
-39.0519104128288	-7.91560777381022	491
-39.458311865339	-7.14309226769963	462
-39.9860553207983	-7.35085950639908	881
-39.0237887931436	-7.59616617096624	448
-39.3762628578044	-7.40955911673833	928
-39.8692892509331	-7.15311042716585	734
-39.3534498289986	-7.85613582778271	496
-39.8223558634078	-7.30588575117059	911
-39.9515330111923	-7.31541364219058	879
-39.3137614215335	-7.14866099730153	380
-39.34553780765	-7.37462458380226	777
-39.6662209838203	-7.27146481357585	905
-39.8646527383495	-7.28075477916442	903
-39.5704455636161	-7.21795569392985	951
-39.2062602809975	-7.60431133189945	616
-39.0753531311127	-7.03930654975535	348
-39.4345046716224	-7.25060522226507	536
-39.4320051020505	-7.61619092434762	673
-39.5263520152368	-7.94330859113169	425
-39.6171673235796	-7.71873182735486	436
-39.5523249562586	-7.20092323412684	924
-39.2898880415995	-7.50179183468726	927
-39.6755050452372	-7.2490917466358	893
-39.5684353399213	-7.78781054352374	440
-39.9510123220285	-7.0606327153451	552
-39.3170718622201	-7.4477348624455	914
-39.1037021801261	-7.58659279469541	452
-39.4756202342881	-7.5484691253813	970
-39.3336958059547	-7.48378318868649	895
-39.4689145372239	-7.90942495034133	455
-39.7581056106334	-7.65275281145748	503
-39.341540820493	-7.10723887619362	436
-39.0501547022521	-7.53349386478311	452
-39.2574872041473	-7.10756799398191	419
-39.9797760401462	-7.02563879882742	501
-39.73048754363	-7.84908790228061	476
-39.959863710595	-7.05262530481	601
-39.682129443577	-7.72823430324852	491
-39.0745975570843	-7.55917525209125	468
-39.6721472469861	-7.60526267847483	498
-39.0585582195955	-7.67924234678595	514
-39.0430860252892	-7.42101524608558	527
-39.8812389959295	-7.61380429797841	810
-39.1608284725316	-7.21685142859525	340
-39.6963697445342	-7.29813927347569	890
-39.4049559197394	-7.20624495256338	476
-39.9967648752567	-7.28798066931179	877
-39.6167152702379	-7.27882458274722	895
-39.4031536287155	-7.86144254999749	465
-39.9435838070942	-7.85063836818897	438
-39.0963148198247	-7.46467615340512	937
-39.9382819839618	-7.22510481396613	872
-39.1733782963565	-7.86753777519066	488
-39.1578630798772	-7.91747153612618	523
-39.8578095042153	-7.76036391223327	469
-39.3704953441178	-7.0127090586987	501
-39.0113521170762	-7.47903271513486	420
-39.1691155028439	-7.3158738348357	447
-39.1336057741961	-7.30177926671198	511
-39.6472765267178	-7.3396032455872	897
-39.5064366096763	-7.34878176885843	922
-39.4663389848556	-7.5757716625485	955
-39.2932193936268	-7.0743543671884	415
-39.1221831173135	-7.63632179560916	619
